# .PCD v0.7 - Point Cloud Data file format
VERSION 0.7
FIELDS x y z
SIZE 4 4 4
TYPE F F F
COUNT 1 1 1
WIDTH 1855
HEIGHT 1
VIEWPOINT 0 0 0 1 0 0 0
POINTS 1855
DATA ascii
5.8509998 4.0510001 0.40099999
5.8509998 4.0510001 0.45100001
5.8509998 4.0510001 0.50099999
5.8509998 4.0510001 0.551
5.8509998 4.0510001 0.60100001
5.8509998 4.0510001 0.65100002
5.8509998 4.0510001 0.70099998
5.8509998 4.0510001 0.75099999
5.8509998 4.0510001 0.801
5.8509998 4.0510001 0.85100001
5.8509998 4.0510001 0.90100002
5.8509998 4.0510001 0.95099998
5.8509998 4.0510001 1.001
5.8509998 4.0510001 1.051
5.8509998 4.0510001 1.101
5.8509998 4.0510001 1.151
5.8509998 4.0510001 1.201
5.8509998 4.0510001 1.251
5.8509998 4.0510001 1.301
5.8509998 4.0510001 1.351
5.8509998 4.0510001 1.401
5.8509998 4.0510001 1.451
5.8509998 4.0510001 1.501
5.8509998 4.0510001 1.551
5.8509998 4.151 0.001
5.8509998 4.151 0.050999999
5.8509998 4.151 0.101
5.8509998 4.151 0.15099999
5.8509998 4.151 0.20100001
5.8509998 4.151 0.25099999
5.8509998 4.151 0.301
5.8509998 4.151 0.35100001
5.8509998 4.151 0.40099999
5.8509998 4.151 0.45100001
5.8509998 4.151 0.50099999
5.8509998 4.151 0.551
5.8509998 4.151 0.60100001
5.8509998 4.151 0.65100002
5.8509998 4.151 0.70099998
5.8509998 4.151 0.75099999
5.8509998 4.151 0.801
5.8509998 4.151 0.85100001
5.8509998 4.151 0.90100002
5.8509998 4.151 0.95099998
5.8509998 4.151 1.001
5.8509998 4.151 1.051
5.8509998 4.151 1.101
5.8509998 4.151 1.151
5.8509998 4.151 1.201
5.8509998 4.151 1.251
5.8509998 4.151 1.301
5.8509998 4.151 1.351
5.8509998 4.151 1.401
5.8509998 4.151 1.451
5.8509998 4.2509999 0.001
5.8509998 4.2509999 0.050999999
5.8509998 4.2509999 0.101
5.8509998 4.2509999 0.15099999
5.8509998 4.2509999 0.20100001
5.8509998 4.2509999 0.25099999
5.8509998 4.2509999 0.301
5.8509998 4.2509999 0.35100001
5.8509998 4.2509999 0.40099999
5.8509998 4.2509999 0.45100001
5.8509998 4.2509999 0.50099999
5.8509998 4.2509999 0.551
5.8509998 4.2509999 0.60100001
5.8509998 4.2509999 0.65100002
5.8509998 4.2509999 0.70099998
5.8509998 4.2509999 0.75099999
5.8509998 4.2509999 0.801
5.8509998 4.2509999 0.85100001
5.8509998 4.2509999 0.90100002
5.8509998 4.2509999 0.95099998
5.8509998 4.2509999 1.001
5.8509998 4.2509999 1.051
5.8509998 4.2509999 1.101
5.8509998 4.2509999 1.151
5.8509998 4.2509999 1.201
5.8509998 4.2509999 1.251
5.8509998 4.2509999 1.301
5.8509998 4.2509999 1.351
5.8509998 4.2509999 1.401
5.8509998 4.2509999 1.451
5.8509998 4.2509999 1.501
5.8509998 4.2509999 1.551
5.8509998 4.2509999 1.601
5.8509998 4.2509999 1.651
5.8509998 4.2509999 1.701
5.8509998 4.2509999 1.751
5.8509998 4.2509999 1.801
5.8509998 4.2509999 1.851
5.8509998 4.2509999 1.901
5.8509998 4.2509999 1.951
5.8509998 4.2509999 2.0009999
5.8509998 4.2509999 2.0510001
5.8509998 4.2509999 2.1010001
5.8509998 4.2509999 2.151
5.8509998 4.2509999 2.201
5.8509998 4.2509999 2.2509999
5.8509998 4.2509999 2.3010001
5.8509998 4.2509999 2.3510001
5.8509998 4.2509999 2.401
5.8509998 4.2509999 2.451
3.7509999 3.2509999 0.001
3.7509999 3.2509999 0.050999999
3.7509999 3.2509999 0.101
3.7509999 3.2509999 0.15099999
3.7509999 3.2509999 0.20100001
3.7509999 3.2509999 0.25099999
3.7509999 3.2509999 0.301
3.7509999 3.2509999 0.35100001
3.7509999 3.2509999 0.40099999
3.7509999 3.2509999 0.45100001
3.7509999 3.2509999 0.50099999
3.7509999 3.2509999 0.551
3.7509999 3.2509999 0.60100001
3.7509999 3.2509999 0.65100002
3.7509999 3.2509999 0.70099998
3.7509999 3.2509999 0.75099999
3.7509999 3.2509999 0.801
3.7509999 3.2509999 0.85100001
3.7509999 3.2509999 0.90100002
3.7509999 3.2509999 0.95099998
3.7509999 3.2509999 1.001
3.7509999 3.2509999 1.051
3.7509999 3.2509999 1.101
3.7509999 3.2509999 1.151
3.7509999 3.2509999 1.201
3.7509999 3.2509999 1.251
3.7509999 3.2509999 1.301
3.7509999 3.2509999 1.351
3.7509999 3.2509999 1.401
3.7509999 3.2509999 1.451
3.7509999 3.2509999 1.501
3.7509999 3.2509999 1.551
3.7509999 3.2509999 1.601
3.7509999 3.2509999 1.651
3.7509999 3.2509999 1.701
3.7509999 3.2509999 1.751
3.7509999 3.2509999 1.801
3.7509999 3.2509999 1.851
3.7509999 3.2509999 1.901
3.7509999 3.2509999 1.951
3.7509999 3.2509999 2.0009999
3.7509999 3.2509999 2.0510001
3.7509999 3.2509999 2.1010001
3.7509999 3.2509999 2.151
3.7509999 3.2509999 2.201
3.7509999 3.2509999 2.2509999
3.7509999 3.2509999 2.3010001
3.7509999 3.2509999 2.3510001
3.7509999 3.2509999 2.401
3.7509999 3.2509999 2.451
3.7509999 3.2509999 2.5009999
3.7509999 3.2509999 2.5510001
3.7509999 3.2509999 2.6010001
3.7509999 3.2509999 2.651
3.7509999 3.2509999 2.701
3.7509999 3.2509999 2.7509999
3.7509999 3.2509999 2.8010001
3.7509999 3.2509999 2.8510001
3.7509999 3.2509999 2.901
3.7509999 3.2509999 2.951
3.7509999 3.3510001 0.001
3.7509999 3.3510001 0.050999999
3.7509999 3.3510001 0.101
3.7509999 3.3510001 0.15099999
3.7509999 3.3510001 0.20100001
3.7509999 3.3510001 0.25099999
3.7509999 3.3510001 0.301
3.7509999 3.3510001 0.35100001
3.7509999 3.3510001 0.40099999
3.7509999 3.3510001 0.45100001
3.7509999 3.3510001 0.50099999
3.7509999 3.3510001 0.551
3.7509999 3.3510001 0.60100001
3.7509999 3.3510001 0.65100002
3.7509999 3.3510001 0.70099998
3.7509999 3.3510001 0.75099999
3.7509999 3.3510001 0.801
3.7509999 3.3510001 0.85100001
3.7509999 3.3510001 0.90100002
3.7509999 3.3510001 0.95099998
3.7509999 3.3510001 1.001
3.7509999 3.3510001 1.051
3.7509999 3.3510001 1.101
3.7509999 3.3510001 1.151
3.7509999 3.3510001 1.201
3.7509999 3.3510001 1.251
3.7509999 3.3510001 1.301
3.7509999 3.3510001 1.351
3.7509999 3.3510001 1.401
3.7509999 3.3510001 1.451
3.7509999 3.3510001 1.501
3.7509999 3.3510001 1.551
3.7509999 3.3510001 1.601
3.7509999 3.3510001 1.651
3.7509999 3.3510001 1.701
3.7509999 3.3510001 1.751
3.7509999 3.3510001 1.801
3.7509999 3.3510001 1.851
3.7509999 3.451 0.001
3.7509999 3.451 0.050999999
3.7509999 3.451 0.101
3.7509999 3.451 0.15099999
3.7509999 3.451 0.20100001
3.7509999 3.451 0.25099999
3.7509999 3.451 0.301
3.7509999 3.451 0.35100001
3.7509999 3.451 0.40099999
3.7509999 3.451 0.45100001
3.7509999 3.451 0.50099999
3.7509999 3.451 0.551
3.7509999 3.451 0.60100001
3.7509999 3.451 0.65100002
3.7509999 3.451 0.70099998
3.7509999 3.451 0.75099999
3.7509999 3.451 0.801
3.7509999 3.451 0.85100001
3.7509999 3.451 0.90100002
3.7509999 3.451 0.95099998
3.7509999 3.451 1.001
3.7509999 3.451 1.051
3.7509999 3.451 1.101
3.7509999 3.451 1.151
3.7509999 3.5510001 0.001
3.7509999 3.5510001 0.050999999
3.7509999 3.5510001 0.101
3.7509999 3.5510001 0.15099999
3.7509999 3.5510001 0.20100001
3.7509999 3.5510001 0.25099999
3.7509999 3.5510001 0.301
3.7509999 3.5510001 0.35100001
3.7509999 3.5510001 0.40099999
3.7509999 3.5510001 0.45100001
3.7509999 3.5510001 0.50099999
3.7509999 3.5510001 0.551
3.7509999 3.5510001 0.60100001
3.7509999 3.5510001 0.65100002
3.7509999 3.5510001 0.70099998
3.7509999 3.5510001 0.75099999
3.7509999 3.5510001 0.801
3.7509999 3.5510001 0.85100001
3.7509999 3.5510001 0.90100002
3.7509999 3.5510001 0.95099998
3.7509999 3.5510001 1.001
3.7509999 3.5510001 1.051
3.7509999 3.5510001 1.101
3.7509999 3.5510001 1.151
3.7509999 3.5510001 1.201
3.7509999 3.5510001 1.251
3.7509999 3.5510001 1.301
3.7509999 3.5510001 1.351
3.7509999 3.5510001 1.401
3.7509999 3.5510001 1.451
3.7509999 3.5510001 1.501
3.7509999 3.5510001 1.551
3.7509999 3.5510001 1.601
3.7509999 3.5510001 1.651
3.7509999 3.5510001 1.701
3.7509999 3.5510001 1.751
3.7509999 3.5510001 1.801
3.7509999 3.5510001 1.851
3.7509999 3.5510001 1.901
3.7509999 3.5510001 1.951
3.7509999 3.651 0.001
3.7509999 3.651 0.050999999
3.7509999 3.651 0.101
3.7509999 3.651 0.15099999
3.7509999 3.651 0.20100001
3.7509999 3.651 0.25099999
3.7509999 3.651 0.301
3.7509999 3.651 0.35100001
3.7509999 3.651 0.40099999
3.7509999 3.651 0.45100001
3.7509999 3.651 0.50099999
3.7509999 3.651 0.551
3.7509999 3.651 0.60100001
3.7509999 3.651 0.65100002
3.7509999 3.651 0.70099998
3.7509999 3.651 0.75099999
3.7509999 3.651 0.801
3.7509999 3.651 0.85100001
3.7509999 3.651 0.90100002
3.7509999 3.651 0.95099998
3.7509999 3.651 1.001
3.7509999 3.651 1.051
3.7509999 3.651 1.101
3.7509999 3.651 1.151
3.7509999 3.651 1.201
3.7509999 3.651 1.251
3.7509999 3.651 1.301
3.7509999 3.651 1.351
3.7509999 3.651 1.401
3.7509999 3.651 1.451
3.7509999 3.651 1.501
3.7509999 3.651 1.551
3.7509999 3.651 1.601
3.7509999 3.651 1.651
3.7509999 3.651 1.701
3.7509999 3.651 1.751
3.7509999 3.651 1.801
3.7509999 3.651 1.851
3.7509999 3.651 1.901
3.7509999 3.651 1.951
3.7509999 3.651 2.0009999
3.7509999 3.651 2.0510001
3.7509999 3.651 2.1010001
3.7509999 3.651 2.151
3.7509999 3.651 2.201
3.7509999 3.651 2.2509999
3.7509999 3.7509999 0.001
3.7509999 3.7509999 0.050999999
3.7509999 3.7509999 0.101
3.7509999 3.7509999 0.15099999
3.7509999 3.7509999 0.20100001
3.7509999 3.7509999 0.25099999
3.7509999 3.7509999 0.301
3.7509999 3.7509999 0.35100001
3.7509999 3.7509999 0.40099999
3.7509999 3.7509999 0.45100001
3.7509999 3.7509999 0.50099999
3.7509999 3.7509999 0.551
3.7509999 3.7509999 0.60100001
3.7509999 3.7509999 0.65100002
3.7509999 3.7509999 0.70099998
3.7509999 3.7509999 0.75099999
3.7509999 3.7509999 0.801
3.7509999 3.7509999 0.85100001
3.7509999 3.7509999 0.90100002
3.7509999 3.7509999 0.95099998
3.7509999 3.7509999 1.001
3.7509999 3.7509999 1.051
3.7509999 3.7509999 1.101
3.7509999 3.7509999 1.151
3.7509999 3.7509999 1.201
3.7509999 3.7509999 1.251
3.7509999 3.7509999 1.301
3.7509999 3.7509999 1.351
3.7509999 3.7509999 1.401
3.7509999 3.7509999 1.451
3.7509999 3.7509999 1.501
3.7509999 3.7509999 1.551
3.7509999 3.8510001 0.001
3.7509999 3.8510001 0.050999999
3.7509999 3.8510001 0.101
3.7509999 3.8510001 0.15099999
3.7509999 3.8510001 0.20100001
3.7509999 3.8510001 0.25099999
3.7509999 3.8510001 0.301
3.7509999 3.8510001 0.35100001
3.7509999 3.8510001 0.40099999
3.7509999 3.8510001 0.45100001
3.7509999 3.8510001 0.50099999
3.7509999 3.8510001 0.551
3.7509999 3.8510001 0.60100001
3.7509999 3.8510001 0.65100002
3.7509999 3.8510001 0.70099998
3.7509999 3.8510001 0.75099999
3.7509999 3.8510001 0.801
3.7509999 3.8510001 0.85100001
3.7509999 3.8510001 0.90100002
3.7509999 3.8510001 0.95099998
3.7509999 3.8510001 1.001
3.7509999 3.8510001 1.051
3.7509999 3.8510001 1.101
3.7509999 3.8510001 1.151
3.7509999 3.8510001 1.201
3.7509999 3.8510001 1.251
3.7509999 3.8510001 1.301
3.7509999 3.8510001 1.351
3.7509999 3.8510001 1.401
3.7509999 3.8510001 1.451
3.7509999 3.8510001 1.501
3.7509999 3.8510001 1.551
3.7509999 3.8510001 1.601
3.7509999 3.8510001 1.651
3.7509999 3.8510001 1.701
3.7509999 3.8510001 1.751
3.7509999 3.8510001 1.801
3.7509999 3.8510001 1.851
3.7509999 3.8510001 1.901
3.7509999 3.8510001 1.951
3.7509999 3.8510001 2.0009999
3.7509999 3.8510001 2.0510001
3.7509999 3.8510001 2.1010001
3.7509999 3.8510001 2.151
3.7509999 3.8510001 2.201
3.7509999 3.8510001 2.2509999
3.8510001 3.2509999 0.001
3.8510001 3.2509999 0.050999999
3.8510001 3.2509999 0.101
3.8510001 3.2509999 0.15099999
3.8510001 3.2509999 0.20100001
3.8510001 3.2509999 0.25099999
3.8510001 3.2509999 0.301
3.8510001 3.2509999 0.35100001
3.8510001 3.2509999 0.40099999
3.8510001 3.2509999 0.45100001
3.8510001 3.2509999 0.50099999
3.8510001 3.2509999 0.551
3.8510001 3.2509999 0.60100001
3.8510001 3.2509999 0.65100002
3.8510001 3.2509999 0.70099998
3.8510001 3.2509999 0.75099999
3.8510001 3.2509999 0.801
3.8510001 3.2509999 0.85100001
3.8510001 3.2509999 0.90100002
3.8510001 3.2509999 0.95099998
3.8510001 3.2509999 1.001
3.8510001 3.2509999 1.051
3.8510001 3.2509999 1.101
3.8510001 3.2509999 1.151
3.8510001 3.2509999 1.201
3.8510001 3.2509999 1.251
3.8510001 3.2509999 1.301
3.8510001 3.2509999 1.351
3.8510001 3.2509999 1.401
3.8510001 3.2509999 1.451
3.8510001 3.2509999 1.501
3.8510001 3.2509999 1.551
3.8510001 3.2509999 1.601
3.8510001 3.2509999 1.651
3.8510001 3.2509999 1.701
3.8510001 3.2509999 1.751
3.8510001 3.2509999 1.801
3.8510001 3.2509999 1.851
3.8510001 3.2509999 1.901
3.8510001 3.2509999 1.951
3.8510001 3.2509999 2.0009999
3.8510001 3.2509999 2.0510001
3.8510001 3.2509999 2.1010001
3.8510001 3.2509999 2.151
3.8510001 3.2509999 2.201
3.8510001 3.2509999 2.2509999
3.8510001 3.3510001 0.001
3.8510001 3.3510001 0.050999999
3.8510001 3.3510001 0.101
3.8510001 3.3510001 0.15099999
3.8510001 3.3510001 0.20100001
3.8510001 3.3510001 0.25099999
3.8510001 3.3510001 0.301
3.8510001 3.3510001 0.35100001
3.8510001 3.3510001 0.40099999
3.8510001 3.3510001 0.45100001
3.8510001 3.3510001 0.50099999
3.8510001 3.3510001 0.551
3.8510001 3.3510001 0.60100001
3.8510001 3.3510001 0.65100002
3.8510001 3.3510001 0.70099998
3.8510001 3.3510001 0.75099999
3.8510001 3.3510001 0.801
3.8510001 3.3510001 0.85100001
3.8510001 3.3510001 0.90100002
3.8510001 3.3510001 0.95099998
3.8510001 3.3510001 1.001
3.8510001 3.3510001 1.051
3.8510001 3.3510001 1.101
3.8510001 3.3510001 1.151
3.8510001 3.3510001 1.201
3.8510001 3.3510001 1.251
3.8510001 3.3510001 1.301
3.8510001 3.3510001 1.351
3.8510001 3.3510001 1.401
3.8510001 3.3510001 1.451
3.8510001 3.3510001 1.501
3.8510001 3.3510001 1.551
3.8510001 3.3510001 1.601
3.8510001 3.3510001 1.651
3.8510001 3.3510001 1.701
3.8510001 3.3510001 1.751
3.8510001 3.3510001 1.801
3.8510001 3.3510001 1.851
3.8510001 3.451 0.001
3.8510001 3.451 0.050999999
3.8510001 3.451 0.101
3.8510001 3.451 0.15099999
3.8510001 3.451 0.20100001
3.8510001 3.451 0.25099999
3.8510001 3.451 0.301
3.8510001 3.451 0.35100001
3.8510001 3.451 0.40099999
3.8510001 3.451 0.45100001
3.8510001 3.451 0.50099999
3.8510001 3.451 0.551
3.8510001 3.451 0.60100001
3.8510001 3.451 0.65100002
3.8510001 3.451 0.70099998
3.8510001 3.451 0.75099999
3.8510001 3.451 0.801
3.8510001 3.451 0.85100001
3.8510001 3.451 0.90100002
3.8510001 3.451 0.95099998
3.8510001 3.451 1.001
3.8510001 3.451 1.051
3.8510001 3.451 1.101
3.8510001 3.451 1.151
3.8510001 3.451 1.201
3.8510001 3.451 1.251
3.8510001 3.451 1.301
3.8510001 3.451 1.351
3.8510001 3.451 1.401
3.8510001 3.451 1.451
3.8510001 3.451 1.501
3.8510001 3.451 1.551
3.8510001 3.451 1.601
3.8510001 3.451 1.651
3.8510001 3.451 1.701
3.8510001 3.451 1.751
3.8510001 3.451 1.801
3.8510001 3.451 1.851
3.8510001 3.451 1.901
3.8510001 3.451 1.951
3.8510001 3.451 2.0009999
3.8510001 3.451 2.0510001
3.8510001 3.451 2.1010001
3.8510001 3.451 2.151
3.8510001 3.451 2.201
3.8510001 3.451 2.2509999
3.8510001 3.451 2.3010001
3.8510001 3.451 2.3510001
3.8510001 3.5510001 0.001
3.8510001 3.5510001 0.050999999
3.8510001 3.5510001 0.101
3.8510001 3.5510001 0.15099999
3.8510001 3.5510001 0.20100001
3.8510001 3.5510001 0.25099999
3.8510001 3.5510001 0.301
3.8510001 3.5510001 0.35100001
3.8510001 3.5510001 0.40099999
3.8510001 3.5510001 0.45100001
3.8510001 3.5510001 0.50099999
3.8510001 3.5510001 0.551
3.8510001 3.5510001 0.60100001
3.8510001 3.5510001 0.65100002
3.8510001 3.5510001 0.70099998
3.8510001 3.5510001 0.75099999
3.8510001 3.5510001 0.801
3.8510001 3.5510001 0.85100001
3.8510001 3.5510001 0.90100002
3.8510001 3.5510001 0.95099998
3.8510001 3.5510001 1.001
3.8510001 3.5510001 1.051
3.8510001 3.5510001 1.101
3.8510001 3.5510001 1.151
3.8510001 3.5510001 1.201
3.8510001 3.5510001 1.251
3.8510001 3.5510001 1.301
3.8510001 3.5510001 1.351
3.8510001 3.5510001 1.401
3.8510001 3.5510001 1.451
3.8510001 3.5510001 1.501
3.8510001 3.5510001 1.551
3.8510001 3.5510001 1.601
3.8510001 3.5510001 1.651
3.8510001 3.5510001 1.701
3.8510001 3.5510001 1.751
3.8510001 3.5510001 1.801
3.8510001 3.5510001 1.851
3.8510001 3.5510001 1.901
3.8510001 3.5510001 1.951
3.8510001 3.5510001 2.0009999
3.8510001 3.5510001 2.0510001
3.8510001 3.5510001 2.1010001
3.8510001 3.5510001 2.151
3.8510001 3.5510001 2.201
3.8510001 3.5510001 2.2509999
3.8510001 3.5510001 2.3010001
3.8510001 3.5510001 2.3510001
3.8510001 3.5510001 2.401
3.8510001 3.5510001 2.451
3.8510001 3.5510001 2.5009999
3.8510001 3.5510001 2.5510001
3.8510001 3.5510001 2.6010001
3.8510001 3.5510001 2.651
3.8510001 3.5510001 2.701
3.8510001 3.5510001 2.7509999
3.8510001 3.5510001 2.8010001
3.8510001 3.5510001 2.8510001
3.8510001 3.5510001 2.901
3.8510001 3.5510001 2.951
3.8510001 3.651 0.001
3.8510001 3.651 0.050999999
3.8510001 3.651 0.101
3.8510001 3.651 0.15099999
3.8510001 3.651 0.20100001
3.8510001 3.651 0.25099999
3.8510001 3.651 0.301
3.8510001 3.651 0.35100001
3.8510001 3.651 0.40099999
3.8510001 3.651 0.45100001
3.8510001 3.651 0.50099999
3.8510001 3.651 0.551
3.8510001 3.651 0.60100001
3.8510001 3.651 0.65100002
3.8510001 3.651 0.70099998
3.8510001 3.651 0.75099999
3.8510001 3.651 0.801
3.8510001 3.651 0.85100001
3.8510001 3.651 0.90100002
3.8510001 3.651 0.95099998
3.8510001 3.651 1.001
3.8510001 3.651 1.051
3.8510001 3.651 1.101
3.8510001 3.651 1.151
3.8510001 3.651 1.201
3.8510001 3.651 1.251
3.8510001 3.651 1.301
3.8510001 3.651 1.351
3.8510001 3.651 1.401
3.8510001 3.651 1.451
3.8510001 3.651 1.501
3.8510001 3.651 1.551
3.8510001 3.651 1.601
3.8510001 3.651 1.651
3.8510001 3.651 1.701
3.8510001 3.651 1.751
3.8510001 3.651 1.801
3.8510001 3.651 1.851
3.8510001 3.651 1.901
3.8510001 3.651 1.951
3.8510001 3.651 2.0009999
3.8510001 3.651 2.0510001
3.8510001 3.651 2.1010001
3.8510001 3.651 2.151
3.8510001 3.651 2.201
3.8510001 3.651 2.2509999
3.8510001 3.651 2.3010001
3.8510001 3.651 2.3510001
3.8510001 3.7509999 0.001
3.8510001 3.7509999 0.050999999
3.8510001 3.7509999 0.101
3.8510001 3.7509999 0.15099999
3.8510001 3.7509999 0.20100001
3.8510001 3.7509999 0.25099999
3.8510001 3.7509999 0.301
3.8510001 3.7509999 0.35100001
3.8510001 3.7509999 0.40099999
3.8510001 3.7509999 0.45100001
3.8510001 3.7509999 0.50099999
3.8510001 3.7509999 0.551
3.8510001 3.7509999 0.60100001
3.8510001 3.7509999 0.65100002
3.8510001 3.7509999 0.70099998
3.8510001 3.7509999 0.75099999
3.8510001 3.7509999 0.801
3.8510001 3.7509999 0.85100001
3.8510001 3.7509999 0.90100002
3.8510001 3.7509999 0.95099998
3.8510001 3.7509999 1.001
3.8510001 3.7509999 1.051
3.8510001 3.7509999 1.101
3.8510001 3.7509999 1.151
3.8510001 3.7509999 1.201
3.8510001 3.7509999 1.251
3.8510001 3.7509999 1.301
3.8510001 3.7509999 1.351
3.8510001 3.7509999 1.401
3.8510001 3.7509999 1.451
3.8510001 3.7509999 1.501
3.8510001 3.7509999 1.551
3.8510001 3.7509999 1.601
3.8510001 3.7509999 1.651
3.8510001 3.8510001 0.001
3.8510001 3.8510001 0.050999999
3.8510001 3.8510001 0.101
3.8510001 3.8510001 0.15099999
3.8510001 3.8510001 0.20100001
3.8510001 3.8510001 0.25099999
3.8510001 3.8510001 0.301
3.8510001 3.8510001 0.35100001
3.8510001 3.8510001 0.40099999
3.8510001 3.8510001 0.45100001
3.8510001 3.8510001 0.50099999
3.8510001 3.8510001 0.551
3.8510001 3.8510001 0.60100001
3.8510001 3.8510001 0.65100002
3.8510001 3.8510001 0.70099998
3.8510001 3.8510001 0.75099999
3.8510001 3.8510001 0.801
3.8510001 3.8510001 0.85100001
3.8510001 3.8510001 0.90100002
3.8510001 3.8510001 0.95099998
3.8510001 3.8510001 1.001
3.8510001 3.8510001 1.051
3.8510001 3.8510001 1.101
3.8510001 3.8510001 1.151
3.8510001 3.8510001 1.201
3.8510001 3.8510001 1.251
3.8510001 3.8510001 1.301
3.8510001 3.8510001 1.351
3.8510001 3.8510001 1.401
3.8510001 3.8510001 1.451
3.8510001 3.8510001 1.501
3.8510001 3.8510001 1.551
3.8510001 3.8510001 1.601
3.8510001 3.8510001 1.651
3.8510001 3.8510001 1.701
3.8510001 3.8510001 1.751
3.8510001 3.8510001 1.801
3.8510001 3.8510001 1.851
3.8510001 3.8510001 1.901
3.8510001 3.8510001 1.951
3.8510001 3.8510001 2.0009999
3.8510001 3.8510001 2.0510001
3.8510001 3.8510001 2.1010001
3.8510001 3.8510001 2.151
3.8510001 3.8510001 2.201
3.8510001 3.8510001 2.2509999
3.951 3.2509999 0.001
3.951 3.2509999 0.050999999
3.951 3.2509999 0.101
3.951 3.2509999 0.15099999
3.951 3.2509999 0.20100001
3.951 3.2509999 0.25099999
3.951 3.2509999 0.301
3.951 3.2509999 0.35100001
3.951 3.2509999 0.40099999
3.951 3.2509999 0.45100001
3.951 3.2509999 0.50099999
3.951 3.2509999 0.551
3.951 3.2509999 0.60100001
3.951 3.2509999 0.65100002
3.951 3.2509999 0.70099998
3.951 3.2509999 0.75099999
3.951 3.2509999 0.801
3.951 3.2509999 0.85100001
3.951 3.2509999 0.90100002
3.951 3.2509999 0.95099998
3.951 3.2509999 1.001
3.951 3.2509999 1.051
3.951 3.2509999 1.101
3.951 3.2509999 1.151
3.951 3.2509999 1.201
3.951 3.2509999 1.251
3.951 3.2509999 1.301
3.951 3.2509999 1.351
3.951 3.2509999 1.401
3.951 3.2509999 1.451
3.951 3.2509999 1.501
3.951 3.2509999 1.551
3.951 3.2509999 1.601
3.951 3.2509999 1.651
3.951 3.2509999 1.701
3.951 3.2509999 1.751
3.951 3.2509999 1.801
3.951 3.2509999 1.851
3.951 3.2509999 1.901
3.951 3.2509999 1.951
3.951 3.2509999 2.0009999
3.951 3.2509999 2.0510001
3.951 3.2509999 2.1010001
3.951 3.2509999 2.151
3.951 3.2509999 2.201
3.951 3.2509999 2.2509999
3.951 3.2509999 2.3010001
3.951 3.2509999 2.3510001
3.951 3.2509999 2.401
3.951 3.2509999 2.451
3.951 3.2509999 2.5009999
3.951 3.2509999 2.5510001
3.951 3.2509999 2.6010001
3.951 3.2509999 2.651
3.951 3.2509999 2.701
3.951 3.2509999 2.7509999
3.951 3.3510001 0.001
3.951 3.3510001 0.050999999
3.951 3.3510001 0.101
3.951 3.3510001 0.15099999
3.951 3.3510001 0.20100001
3.951 3.3510001 0.25099999
3.951 3.3510001 0.301
3.951 3.3510001 0.35100001
3.951 3.3510001 0.40099999
3.951 3.3510001 0.45100001
3.951 3.3510001 0.50099999
3.951 3.3510001 0.551
3.951 3.3510001 0.60100001
3.951 3.3510001 0.65100002
3.951 3.3510001 0.70099998
3.951 3.3510001 0.75099999
3.951 3.3510001 0.801
3.951 3.3510001 0.85100001
3.951 3.3510001 0.90100002
3.951 3.3510001 0.95099998
3.951 3.3510001 1.001
3.951 3.3510001 1.051
3.951 3.3510001 1.101
3.951 3.3510001 1.151
3.951 3.3510001 1.201
3.951 3.3510001 1.251
3.951 3.451 0.001
3.951 3.451 0.050999999
3.951 3.451 0.101
3.951 3.451 0.15099999
3.951 3.451 0.20100001
3.951 3.451 0.25099999
3.951 3.451 0.301
3.951 3.451 0.35100001
3.951 3.451 0.40099999
3.951 3.451 0.45100001
3.951 3.451 0.50099999
3.951 3.451 0.551
3.951 3.451 0.60100001
3.951 3.451 0.65100002
3.951 3.451 0.70099998
3.951 3.451 0.75099999
3.951 3.451 0.801
3.951 3.451 0.85100001
3.951 3.451 0.90100002
3.951 3.451 0.95099998
3.951 3.451 1.001
3.951 3.451 1.051
3.951 3.5510001 0.001
3.951 3.5510001 0.050999999
3.951 3.5510001 0.101
3.951 3.5510001 0.15099999
3.951 3.5510001 0.20100001
3.951 3.5510001 0.25099999
3.951 3.5510001 0.301
3.951 3.5510001 0.35100001
3.951 3.5510001 0.40099999
3.951 3.5510001 0.45100001
3.951 3.5510001 0.50099999
3.951 3.5510001 0.551
3.951 3.5510001 0.60100001
3.951 3.5510001 0.65100002
3.951 3.5510001 0.70099998
3.951 3.5510001 0.75099999
3.951 3.5510001 0.801
3.951 3.5510001 0.85100001
3.951 3.5510001 0.90100002
3.951 3.5510001 0.95099998
3.951 3.5510001 1.001
3.951 3.5510001 1.051
3.951 3.5510001 1.101
3.951 3.5510001 1.151
3.951 3.5510001 1.201
3.951 3.5510001 1.251
3.951 3.5510001 1.301
3.951 3.5510001 1.351
3.951 3.5510001 1.401
3.951 3.5510001 1.451
3.951 3.5510001 1.501
3.951 3.5510001 1.551
3.951 3.5510001 1.601
3.951 3.5510001 1.651
3.951 3.5510001 1.701
3.951 3.5510001 1.751
3.951 3.5510001 1.801
3.951 3.5510001 1.851
3.951 3.5510001 1.901
3.951 3.5510001 1.951
3.951 3.5510001 2.0009999
3.951 3.5510001 2.0510001
3.951 3.5510001 2.1010001
3.951 3.5510001 2.151
3.951 3.5510001 2.201
3.951 3.5510001 2.2509999
3.951 3.5510001 2.3010001
3.951 3.5510001 2.3510001
3.951 3.5510001 2.401
3.951 3.5510001 2.451
3.951 3.651 0.001
3.951 3.651 0.050999999
3.951 3.651 0.101
3.951 3.651 0.15099999
3.951 3.651 0.20100001
3.951 3.651 0.25099999
3.951 3.651 0.301
3.951 3.651 0.35100001
3.951 3.651 0.40099999
3.951 3.651 0.45100001
3.951 3.651 0.50099999
3.951 3.651 0.551
3.951 3.651 0.60100001
3.951 3.651 0.65100002
3.951 3.651 0.70099998
3.951 3.651 0.75099999
3.951 3.651 0.801
3.951 3.651 0.85100001
3.951 3.651 0.90100002
3.951 3.651 0.95099998
3.951 3.651 1.001
3.951 3.651 1.051
3.951 3.651 1.101
3.951 3.651 1.151
3.951 3.651 1.201
3.951 3.651 1.251
3.951 3.651 1.301
3.951 3.651 1.351
3.951 3.651 1.401
3.951 3.651 1.451
3.951 3.651 1.501
3.951 3.651 1.551
3.951 3.651 1.601
3.951 3.651 1.651
3.951 3.651 1.701
3.951 3.651 1.751
3.951 3.651 1.801
3.951 3.651 1.851
3.951 3.7509999 0.001
3.951 3.7509999 0.050999999
3.951 3.7509999 0.101
3.951 3.7509999 0.15099999
3.951 3.7509999 0.20100001
3.951 3.7509999 0.25099999
3.951 3.7509999 0.301
3.951 3.7509999 0.35100001
3.951 3.7509999 0.40099999
3.951 3.7509999 0.45100001
3.951 3.7509999 0.50099999
3.951 3.7509999 0.551
3.951 3.7509999 0.60100001
3.951 3.7509999 0.65100002
3.951 3.7509999 0.70099998
3.951 3.7509999 0.75099999
3.951 3.7509999 0.801
3.951 3.7509999 0.85100001
3.951 3.7509999 0.90100002
3.951 3.7509999 0.95099998
3.951 3.7509999 1.001
3.951 3.7509999 1.051
3.951 3.7509999 1.101
3.951 3.7509999 1.151
3.951 3.7509999 1.201
3.951 3.7509999 1.251
3.951 3.7509999 1.301
3.951 3.7509999 1.351
3.951 3.7509999 1.401
3.951 3.7509999 1.451
3.951 3.7509999 1.501
3.951 3.7509999 1.551
3.951 3.7509999 1.601
3.951 3.7509999 1.651
3.951 3.7509999 1.701
3.951 3.7509999 1.751
3.951 3.7509999 1.801
3.951 3.7509999 1.851
3.951 3.7509999 1.901
3.951 3.7509999 1.951
3.951 3.7509999 2.0009999
3.951 3.7509999 2.0510001
3.951 3.7509999 2.1010001
3.951 3.7509999 2.151
3.951 3.7509999 2.201
3.951 3.7509999 2.2509999
3.951 3.7509999 2.3010001
3.951 3.7509999 2.3510001
3.951 3.8510001 0.001
3.951 3.8510001 0.050999999
3.951 3.8510001 0.101
3.951 3.8510001 0.15099999
3.951 3.8510001 0.20100001
3.951 3.8510001 0.25099999
3.951 3.8510001 0.301
3.951 3.8510001 0.35100001
3.951 3.8510001 0.40099999
3.951 3.8510001 0.45100001
3.951 3.8510001 0.50099999
3.951 3.8510001 0.551
3.951 3.8510001 0.60100001
3.951 3.8510001 0.65100002
3.951 3.8510001 0.70099998
3.951 3.8510001 0.75099999
3.951 3.8510001 0.801
3.951 3.8510001 0.85100001
3.951 3.8510001 0.90100002
3.951 3.8510001 0.95099998
3.951 3.8510001 1.001
3.951 3.8510001 1.051
3.951 3.8510001 1.101
3.951 3.8510001 1.151
3.951 3.8510001 1.201
3.951 3.8510001 1.251
4.0510001 3.2509999 0.001
4.0510001 3.2509999 0.050999999
4.0510001 3.2509999 0.101
4.0510001 3.2509999 0.15099999
4.0510001 3.2509999 0.20100001
4.0510001 3.2509999 0.25099999
4.0510001 3.2509999 0.301
4.0510001 3.2509999 0.35100001
4.0510001 3.2509999 0.40099999
4.0510001 3.2509999 0.45100001
4.0510001 3.2509999 0.50099999
4.0510001 3.2509999 0.551
4.0510001 3.2509999 0.60100001
4.0510001 3.2509999 0.65100002
4.0510001 3.2509999 0.70099998
4.0510001 3.2509999 0.75099999
4.0510001 3.2509999 0.801
4.0510001 3.2509999 0.85100001
4.0510001 3.2509999 0.90100002
4.0510001 3.2509999 0.95099998
4.0510001 3.2509999 1.001
4.0510001 3.2509999 1.051
4.0510001 3.2509999 1.101
4.0510001 3.2509999 1.151
4.0510001 3.2509999 1.201
4.0510001 3.2509999 1.251
4.0510001 3.2509999 1.301
4.0510001 3.2509999 1.351
4.0510001 3.2509999 1.401
4.0510001 3.2509999 1.451
4.0510001 3.2509999 1.501
4.0510001 3.2509999 1.551
4.0510001 3.2509999 1.601
4.0510001 3.2509999 1.651
4.0510001 3.2509999 1.701
4.0510001 3.2509999 1.751
4.0510001 3.2509999 1.801
4.0510001 3.2509999 1.851
4.0510001 3.2509999 1.901
4.0510001 3.2509999 1.951
4.0510001 3.2509999 2.0009999
4.0510001 3.2509999 2.0510001
4.0510001 3.2509999 2.1010001
4.0510001 3.2509999 2.151
4.0510001 3.3510001 0.001
4.0510001 3.3510001 0.050999999
4.0510001 3.3510001 0.101
4.0510001 3.3510001 0.15099999
4.0510001 3.3510001 0.20100001
4.0510001 3.3510001 0.25099999
4.0510001 3.3510001 0.301
4.0510001 3.3510001 0.35100001
4.0510001 3.3510001 0.40099999
4.0510001 3.3510001 0.45100001
4.0510001 3.3510001 0.50099999
4.0510001 3.3510001 0.551
4.0510001 3.3510001 0.60100001
4.0510001 3.3510001 0.65100002
4.0510001 3.3510001 0.70099998
4.0510001 3.3510001 0.75099999
4.0510001 3.3510001 0.801
4.0510001 3.3510001 0.85100001
4.0510001 3.3510001 0.90100002
4.0510001 3.3510001 0.95099998
4.0510001 3.3510001 1.001
4.0510001 3.3510001 1.051
4.0510001 3.3510001 1.101
4.0510001 3.3510001 1.151
4.0510001 3.3510001 1.201
4.0510001 3.3510001 1.251
4.0510001 3.3510001 1.301
4.0510001 3.3510001 1.351
4.0510001 3.3510001 1.401
4.0510001 3.3510001 1.451
4.0510001 3.3510001 1.501
4.0510001 3.3510001 1.551
4.0510001 3.3510001 1.601
4.0510001 3.3510001 1.651
4.0510001 3.3510001 1.701
4.0510001 3.3510001 1.751
4.0510001 3.3510001 1.801
4.0510001 3.3510001 1.851
4.0510001 3.3510001 1.901
4.0510001 3.3510001 1.951
4.0510001 3.3510001 2.0009999
4.0510001 3.3510001 2.0510001
4.0510001 3.3510001 2.1010001
4.0510001 3.3510001 2.151
4.0510001 3.3510001 2.201
4.0510001 3.3510001 2.2509999
4.0510001 3.3510001 2.3010001
4.0510001 3.3510001 2.3510001
4.0510001 3.3510001 2.401
4.0510001 3.3510001 2.451
4.0510001 3.3510001 2.5009999
4.0510001 3.3510001 2.5510001
4.0510001 3.451 0.001
4.0510001 3.451 0.050999999
4.0510001 3.451 0.101
4.0510001 3.451 0.15099999
4.0510001 3.451 0.20100001
4.0510001 3.451 0.25099999
4.0510001 3.451 0.301
4.0510001 3.451 0.35100001
4.0510001 3.451 0.40099999
4.0510001 3.451 0.45100001
4.0510001 3.451 0.50099999
4.0510001 3.451 0.551
4.0510001 3.451 0.60100001
4.0510001 3.451 0.65100002
4.0510001 3.451 0.70099998
4.0510001 3.451 0.75099999
4.0510001 3.451 0.801
4.0510001 3.451 0.85100001
4.0510001 3.451 0.90100002
4.0510001 3.451 0.95099998
4.0510001 3.451 1.001
4.0510001 3.451 1.051
4.0510001 3.451 1.101
4.0510001 3.451 1.151
4.0510001 3.451 1.201
4.0510001 3.451 1.251
4.0510001 3.451 1.301
4.0510001 3.451 1.351
4.0510001 3.451 1.401
4.0510001 3.451 1.451
4.0510001 3.451 1.501
4.0510001 3.451 1.551
4.0510001 3.451 1.601
4.0510001 3.451 1.651
4.0510001 3.451 1.701
4.0510001 3.451 1.751
4.0510001 3.451 1.801
4.0510001 3.451 1.851
4.0510001 3.451 1.901
4.0510001 3.451 1.951
4.0510001 3.451 2.0009999
4.0510001 3.451 2.0510001
4.0510001 3.451 2.1010001
4.0510001 3.451 2.151
4.0510001 3.451 2.201
4.0510001 3.451 2.2509999
4.0510001 3.5510001 0.001
4.0510001 3.5510001 0.050999999
4.0510001 3.5510001 0.101
4.0510001 3.5510001 0.15099999
4.0510001 3.5510001 0.20100001
4.0510001 3.5510001 0.25099999
4.0510001 3.5510001 0.301
4.0510001 3.5510001 0.35100001
4.0510001 3.5510001 0.40099999
4.0510001 3.5510001 0.45100001
4.0510001 3.5510001 0.50099999
4.0510001 3.5510001 0.551
4.0510001 3.5510001 0.60100001
4.0510001 3.5510001 0.65100002
4.0510001 3.5510001 0.70099998
4.0510001 3.5510001 0.75099999
4.0510001 3.5510001 0.801
4.0510001 3.5510001 0.85100001
4.0510001 3.5510001 0.90100002
4.0510001 3.5510001 0.95099998
4.0510001 3.5510001 1.001
4.0510001 3.5510001 1.051
4.0510001 3.5510001 1.101
4.0510001 3.5510001 1.151
4.0510001 3.5510001 1.201
4.0510001 3.5510001 1.251
4.0510001 3.5510001 1.301
4.0510001 3.5510001 1.351
4.0510001 3.5510001 1.401
4.0510001 3.5510001 1.451
4.0510001 3.651 0.001
4.0510001 3.651 0.050999999
4.0510001 3.651 0.101
4.0510001 3.651 0.15099999
4.0510001 3.651 0.20100001
4.0510001 3.651 0.25099999
4.0510001 3.651 0.301
4.0510001 3.651 0.35100001
4.0510001 3.651 0.40099999
4.0510001 3.651 0.45100001
4.0510001 3.651 0.50099999
4.0510001 3.651 0.551
4.0510001 3.651 0.60100001
4.0510001 3.651 0.65100002
4.0510001 3.651 0.70099998
4.0510001 3.651 0.75099999
4.0510001 3.651 0.801
4.0510001 3.651 0.85100001
4.0510001 3.651 0.90100002
4.0510001 3.651 0.95099998
4.0510001 3.651 1.001
4.0510001 3.651 1.051
4.0510001 3.651 1.101
4.0510001 3.651 1.151
4.0510001 3.651 1.201
4.0510001 3.651 1.251
4.0510001 3.651 1.301
4.0510001 3.651 1.351
4.0510001 3.651 1.401
4.0510001 3.651 1.451
4.0510001 3.651 1.501
4.0510001 3.651 1.551
4.0510001 3.651 1.601
4.0510001 3.651 1.651
4.0510001 3.651 1.701
4.0510001 3.651 1.751
4.0510001 3.651 1.801
4.0510001 3.651 1.851
4.0510001 3.651 1.901
4.0510001 3.651 1.951
4.0510001 3.651 2.0009999
4.0510001 3.651 2.0510001
4.0510001 3.651 2.1010001
4.0510001 3.651 2.151
4.0510001 3.651 2.201
4.0510001 3.651 2.2509999
4.0510001 3.651 2.3010001
4.0510001 3.651 2.3510001
4.0510001 3.651 2.401
4.0510001 3.651 2.451
4.0510001 3.651 2.5009999
4.0510001 3.651 2.5510001
4.0510001 3.651 2.6010001
4.0510001 3.651 2.651
4.0510001 3.7509999 0.001
4.0510001 3.7509999 0.050999999
4.0510001 3.7509999 0.101
4.0510001 3.7509999 0.15099999
4.0510001 3.7509999 0.20100001
4.0510001 3.7509999 0.25099999
4.0510001 3.7509999 0.301
4.0510001 3.7509999 0.35100001
4.0510001 3.7509999 0.40099999
4.0510001 3.7509999 0.45100001
4.0510001 3.7509999 0.50099999
4.0510001 3.7509999 0.551
4.0510001 3.7509999 0.60100001
4.0510001 3.7509999 0.65100002
4.0510001 3.7509999 0.70099998
4.0510001 3.7509999 0.75099999
4.0510001 3.7509999 0.801
4.0510001 3.7509999 0.85100001
4.0510001 3.7509999 0.90100002
4.0510001 3.7509999 0.95099998
4.0510001 3.7509999 1.001
4.0510001 3.7509999 1.051
4.0510001 3.7509999 1.101
4.0510001 3.7509999 1.151
4.0510001 3.7509999 1.201
4.0510001 3.7509999 1.251
4.0510001 3.7509999 1.301
4.0510001 3.7509999 1.351
4.0510001 3.7509999 1.401
4.0510001 3.7509999 1.451
4.0510001 3.7509999 1.501
4.0510001 3.7509999 1.551
4.0510001 3.7509999 1.601
4.0510001 3.7509999 1.651
4.0510001 3.7509999 1.701
4.0510001 3.7509999 1.751
4.0510001 3.7509999 1.801
4.0510001 3.7509999 1.851
4.0510001 3.7509999 1.901
4.0510001 3.7509999 1.951
4.0510001 3.7509999 2.0009999
4.0510001 3.7509999 2.0510001
4.0510001 3.7509999 2.1010001
4.0510001 3.7509999 2.151
4.0510001 3.7509999 2.201
4.0510001 3.7509999 2.2509999
4.0510001 3.7509999 2.3010001
4.0510001 3.7509999 2.3510001
4.0510001 3.8510001 0.001
4.0510001 3.8510001 0.050999999
4.0510001 3.8510001 0.101
4.0510001 3.8510001 0.15099999
4.0510001 3.8510001 0.20100001
4.0510001 3.8510001 0.25099999
4.0510001 3.8510001 0.301
4.0510001 3.8510001 0.35100001
4.0510001 3.8510001 0.40099999
4.0510001 3.8510001 0.45100001
4.0510001 3.8510001 0.50099999
4.0510001 3.8510001 0.551
4.0510001 3.8510001 0.60100001
4.0510001 3.8510001 0.65100002
4.0510001 3.8510001 0.70099998
4.0510001 3.8510001 0.75099999
4.0510001 3.8510001 0.801
4.0510001 3.8510001 0.85100001
4.0510001 3.8510001 0.90100002
4.0510001 3.8510001 0.95099998
4.0510001 3.8510001 1.001
4.0510001 3.8510001 1.051
4.0510001 3.8510001 1.101
4.0510001 3.8510001 1.151
4.0510001 3.8510001 1.201
4.0510001 3.8510001 1.251
4.0510001 3.8510001 1.301
4.0510001 3.8510001 1.351
4.0510001 3.8510001 1.401
4.0510001 3.8510001 1.451
4.0510001 3.8510001 1.501
4.0510001 3.8510001 1.551
4.0510001 3.8510001 1.601
4.0510001 3.8510001 1.651
4.0510001 3.8510001 1.701
4.0510001 3.8510001 1.751
4.0510001 3.8510001 1.801
4.0510001 3.8510001 1.851
4.0510001 3.8510001 1.901
4.0510001 3.8510001 1.951
4.0510001 3.8510001 2.0009999
4.0510001 3.8510001 2.0510001
4.0510001 3.8510001 2.1010001
4.0510001 3.8510001 2.151
4.0510001 3.8510001 2.201
4.0510001 3.8510001 2.2509999
4.151 3.2509999 0.001
4.151 3.2509999 0.050999999
4.151 3.2509999 0.101
4.151 3.2509999 0.15099999
4.151 3.2509999 0.20100001
4.151 3.2509999 0.25099999
4.151 3.2509999 0.301
4.151 3.2509999 0.35100001
4.151 3.2509999 0.40099999
4.151 3.2509999 0.45100001
4.151 3.2509999 0.50099999
4.151 3.2509999 0.551
4.151 3.2509999 0.60100001
4.151 3.2509999 0.65100002
4.151 3.2509999 0.70099998
4.151 3.2509999 0.75099999
4.151 3.2509999 0.801
4.151 3.2509999 0.85100001
4.151 3.2509999 0.90100002
4.151 3.2509999 0.95099998
4.151 3.2509999 1.001
4.151 3.2509999 1.051
4.151 3.2509999 1.101
4.151 3.2509999 1.151
4.151 3.2509999 1.201
4.151 3.2509999 1.251
4.151 3.2509999 1.301
4.151 3.2509999 1.351
4.151 3.2509999 1.401
4.151 3.2509999 1.451
4.151 3.2509999 1.501
4.151 3.2509999 1.551
4.151 3.2509999 1.601
4.151 3.2509999 1.651
4.151 3.2509999 1.701
4.151 3.2509999 1.751
4.151 3.2509999 1.801
4.151 3.2509999 1.851
4.151 3.2509999 1.901
4.151 3.2509999 1.951
4.151 3.2509999 2.0009999
4.151 3.2509999 2.0510001
4.151 3.2509999 2.1010001
4.151 3.2509999 2.151
4.151 3.3510001 0.001
4.151 3.3510001 0.050999999
4.151 3.3510001 0.101
4.151 3.3510001 0.15099999
4.151 3.3510001 0.20100001
4.151 3.3510001 0.25099999
4.151 3.3510001 0.301
4.151 3.3510001 0.35100001
4.151 3.3510001 0.40099999
4.151 3.3510001 0.45100001
4.151 3.3510001 0.50099999
4.151 3.3510001 0.551
4.151 3.3510001 0.60100001
4.151 3.3510001 0.65100002
4.151 3.3510001 0.70099998
4.151 3.3510001 0.75099999
4.151 3.3510001 0.801
4.151 3.3510001 0.85100001
4.151 3.3510001 0.90100002
4.151 3.3510001 0.95099998
4.151 3.3510001 1.001
4.151 3.3510001 1.051
4.151 3.3510001 1.101
4.151 3.3510001 1.151
4.151 3.3510001 1.201
4.151 3.3510001 1.251
4.151 3.3510001 1.301
4.151 3.3510001 1.351
4.151 3.3510001 1.401
4.151 3.3510001 1.451
4.151 3.3510001 1.501
4.151 3.3510001 1.551
4.151 3.3510001 1.601
4.151 3.3510001 1.651
4.151 3.3510001 1.701
4.151 3.3510001 1.751
4.151 3.3510001 1.801
4.151 3.3510001 1.851
4.151 3.3510001 1.901
4.151 3.3510001 1.951
4.151 3.3510001 2.0009999
4.151 3.3510001 2.0510001
4.151 3.3510001 2.1010001
4.151 3.3510001 2.151
4.151 3.3510001 2.201
4.151 3.3510001 2.2509999
4.151 3.451 0.001
4.151 3.451 0.050999999
4.151 3.451 0.101
4.151 3.451 0.15099999
4.151 3.451 0.20100001
4.151 3.451 0.25099999
4.151 3.451 0.301
4.151 3.451 0.35100001
4.151 3.451 0.40099999
4.151 3.451 0.45100001
4.151 3.451 0.50099999
4.151 3.451 0.551
4.151 3.451 0.60100001
4.151 3.451 0.65100002
4.151 3.451 0.70099998
4.151 3.451 0.75099999
4.151 3.451 0.801
4.151 3.451 0.85100001
4.151 3.451 0.90100002
4.151 3.451 0.95099998
4.151 3.451 1.001
4.151 3.451 1.051
4.151 3.451 1.101
4.151 3.451 1.151
4.151 3.451 1.201
4.151 3.451 1.251
4.151 3.451 1.301
4.151 3.451 1.351
4.151 3.451 1.401
4.151 3.451 1.451
4.151 3.451 1.501
4.151 3.451 1.551
4.151 3.451 1.601
4.151 3.451 1.651
4.151 3.451 1.701
4.151 3.451 1.751
4.151 3.451 1.801
4.151 3.451 1.851
4.151 3.451 1.901
4.151 3.451 1.951
4.151 3.451 2.0009999
4.151 3.451 2.0510001
4.151 3.451 2.1010001
4.151 3.451 2.151
4.151 3.451 2.201
4.151 3.451 2.2509999
4.151 3.451 2.3010001
4.151 3.451 2.3510001
4.151 3.451 2.401
4.151 3.451 2.451
4.151 3.451 2.5009999
4.151 3.451 2.5510001
4.151 3.451 2.6010001
4.151 3.451 2.651
4.151 3.5510001 0.001
4.151 3.5510001 0.050999999
4.151 3.5510001 0.101
4.151 3.5510001 0.15099999
4.151 3.5510001 0.20100001
4.151 3.5510001 0.25099999
4.151 3.5510001 0.301
4.151 3.5510001 0.35100001
4.151 3.5510001 0.40099999
4.151 3.5510001 0.45100001
4.151 3.5510001 0.50099999
4.151 3.5510001 0.551
4.151 3.5510001 0.60100001
4.151 3.5510001 0.65100002
4.151 3.5510001 0.70099998
4.151 3.5510001 0.75099999
4.151 3.5510001 0.801
4.151 3.5510001 0.85100001
4.151 3.5510001 0.90100002
4.151 3.5510001 0.95099998
4.151 3.5510001 1.001
4.151 3.5510001 1.051
4.151 3.5510001 1.101
4.151 3.5510001 1.151
4.151 3.5510001 1.201
4.151 3.5510001 1.251
4.151 3.5510001 1.301
4.151 3.5510001 1.351
4.151 3.5510001 1.401
4.151 3.5510001 1.451
4.151 3.5510001 1.501
4.151 3.5510001 1.551
4.151 3.5510001 1.601
4.151 3.5510001 1.651
4.151 3.5510001 1.701
4.151 3.5510001 1.751
4.151 3.5510001 1.801
4.151 3.5510001 1.851
4.151 3.5510001 1.901
4.151 3.5510001 1.951
4.151 3.5510001 2.0009999
4.151 3.5510001 2.0510001
4.151 3.5510001 2.1010001
4.151 3.5510001 2.151
4.151 3.651 0.001
4.151 3.651 0.050999999
4.151 3.651 0.101
4.151 3.651 0.15099999
4.151 3.651 0.20100001
4.151 3.651 0.25099999
4.151 3.651 0.301
4.151 3.651 0.35100001
4.151 3.651 0.40099999
4.151 3.651 0.45100001
4.151 3.651 0.50099999
4.151 3.651 0.551
4.151 3.651 0.60100001
4.151 3.651 0.65100002
4.151 3.651 0.70099998
4.151 3.651 0.75099999
4.151 3.651 0.801
4.151 3.651 0.85100001
4.151 3.651 0.90100002
4.151 3.651 0.95099998
4.151 3.651 1.001
4.151 3.651 1.051
4.151 3.651 1.101
4.151 3.651 1.151
4.151 3.651 1.201
4.151 3.651 1.251
4.151 3.651 1.301
4.151 3.651 1.351
4.151 3.651 1.401
4.151 3.651 1.451
4.151 3.651 1.501
4.151 3.651 1.551
4.151 3.651 1.601
4.151 3.651 1.651
4.151 3.651 1.701
4.151 3.651 1.751
4.151 3.651 1.801
4.151 3.651 1.851
4.151 3.651 1.901
4.151 3.651 1.951
4.151 3.651 2.0009999
4.151 3.651 2.0510001
4.151 3.651 2.1010001
4.151 3.651 2.151
4.151 3.651 2.201
4.151 3.651 2.2509999
4.151 3.651 2.3010001
4.151 3.651 2.3510001
4.151 3.651 2.401
4.151 3.651 2.451
4.151 3.7509999 0.001
4.151 3.7509999 0.050999999
4.151 3.7509999 0.101
4.151 3.7509999 0.15099999
4.151 3.7509999 0.20100001
4.151 3.7509999 0.25099999
4.151 3.7509999 0.301
4.151 3.7509999 0.35100001
4.151 3.7509999 0.40099999
4.151 3.7509999 0.45100001
4.151 3.7509999 0.50099999
4.151 3.7509999 0.551
4.151 3.7509999 0.60100001
4.151 3.7509999 0.65100002
4.151 3.7509999 0.70099998
4.151 3.7509999 0.75099999
4.151 3.7509999 0.801
4.151 3.7509999 0.85100001
4.151 3.7509999 0.90100002
4.151 3.7509999 0.95099998
4.151 3.7509999 1.001
4.151 3.7509999 1.051
4.151 3.8510001 0.001
4.151 3.8510001 0.050999999
4.151 3.8510001 0.101
4.151 3.8510001 0.15099999
4.151 3.8510001 0.20100001
4.151 3.8510001 0.25099999
4.151 3.8510001 0.301
4.151 3.8510001 0.35100001
4.151 3.8510001 0.40099999
4.151 3.8510001 0.45100001
4.151 3.8510001 0.50099999
4.151 3.8510001 0.551
4.151 3.8510001 0.60100001
4.151 3.8510001 0.65100002
4.151 3.8510001 0.70099998
4.151 3.8510001 0.75099999
4.151 3.8510001 0.801
4.151 3.8510001 0.85100001
4.151 3.8510001 0.90100002
4.151 3.8510001 0.95099998
4.151 3.8510001 1.001
4.151 3.8510001 1.051
4.151 3.8510001 1.101
4.151 3.8510001 1.151
4.151 3.8510001 1.201
4.151 3.8510001 1.251
4.151 3.8510001 1.301
4.151 3.8510001 1.351
4.151 3.8510001 1.401
4.151 3.8510001 1.451
4.151 3.8510001 1.501
4.151 3.8510001 1.551
4.151 3.8510001 1.601
4.151 3.8510001 1.651
4.151 3.8510001 1.701
4.151 3.8510001 1.751
4.151 3.8510001 1.801
4.151 3.8510001 1.851
4.151 3.8510001 1.901
4.151 3.8510001 1.951
4.151 3.8510001 2.0009999
4.151 3.8510001 2.0510001
4.151 3.8510001 2.1010001
4.151 3.8510001 2.151
4.2509999 3.2509999 0.001
4.2509999 3.2509999 0.050999999
4.2509999 3.2509999 0.101
4.2509999 3.2509999 0.15099999
4.2509999 3.2509999 0.20100001
4.2509999 3.2509999 0.25099999
4.2509999 3.2509999 0.301
4.2509999 3.2509999 0.35100001
4.2509999 3.2509999 0.40099999
4.2509999 3.2509999 0.45100001
4.2509999 3.2509999 0.50099999
4.2509999 3.2509999 0.551
4.2509999 3.2509999 0.60100001
4.2509999 3.2509999 0.65100002
4.2509999 3.2509999 0.70099998
4.2509999 3.2509999 0.75099999
4.2509999 3.2509999 0.801
4.2509999 3.2509999 0.85100001
4.2509999 3.2509999 0.90100002
4.2509999 3.2509999 0.95099998
4.2509999 3.2509999 1.001
4.2509999 3.2509999 1.051
4.2509999 3.2509999 1.101
4.2509999 3.2509999 1.151
4.2509999 3.2509999 1.201
4.2509999 3.2509999 1.251
4.2509999 3.3510001 0.001
4.2509999 3.3510001 0.050999999
4.2509999 3.3510001 0.101
4.2509999 3.3510001 0.15099999
4.2509999 3.3510001 0.20100001
4.2509999 3.3510001 0.25099999
4.2509999 3.3510001 0.301
4.2509999 3.3510001 0.35100001
4.2509999 3.3510001 0.40099999
4.2509999 3.3510001 0.45100001
4.2509999 3.3510001 0.50099999
4.2509999 3.3510001 0.551
4.2509999 3.3510001 0.60100001
4.2509999 3.3510001 0.65100002
4.2509999 3.3510001 0.70099998
4.2509999 3.3510001 0.75099999
4.2509999 3.3510001 0.801
4.2509999 3.3510001 0.85100001
4.2509999 3.3510001 0.90100002
4.2509999 3.3510001 0.95099998
4.2509999 3.3510001 1.001
4.2509999 3.3510001 1.051
4.2509999 3.3510001 1.101
4.2509999 3.3510001 1.151
4.2509999 3.3510001 1.201
4.2509999 3.3510001 1.251
4.2509999 3.3510001 1.301
4.2509999 3.3510001 1.351
4.2509999 3.3510001 1.401
4.2509999 3.3510001 1.451
4.2509999 3.3510001 1.501
4.2509999 3.3510001 1.551
4.2509999 3.3510001 1.601
4.2509999 3.3510001 1.651
4.2509999 3.3510001 1.701
4.2509999 3.3510001 1.751
4.2509999 3.451 0.001
4.2509999 3.451 0.050999999
4.2509999 3.451 0.101
4.2509999 3.451 0.15099999
4.2509999 3.451 0.20100001
4.2509999 3.451 0.25099999
4.2509999 3.451 0.301
4.2509999 3.451 0.35100001
4.2509999 3.451 0.40099999
4.2509999 3.451 0.45100001
4.2509999 3.451 0.50099999
4.2509999 3.451 0.551
4.2509999 3.451 0.60100001
4.2509999 3.451 0.65100002
4.2509999 3.451 0.70099998
4.2509999 3.451 0.75099999
4.2509999 3.451 0.801
4.2509999 3.451 0.85100001
4.2509999 3.451 0.90100002
4.2509999 3.451 0.95099998
4.2509999 3.451 1.001
4.2509999 3.451 1.051
4.2509999 3.451 1.101
4.2509999 3.451 1.151
4.2509999 3.451 1.201
4.2509999 3.451 1.251
4.2509999 3.451 1.301
4.2509999 3.451 1.351
4.2509999 3.5510001 0.001
4.2509999 3.5510001 0.050999999
4.2509999 3.5510001 0.101
4.2509999 3.5510001 0.15099999
4.2509999 3.5510001 0.20100001
4.2509999 3.5510001 0.25099999
4.2509999 3.5510001 0.301
4.2509999 3.5510001 0.35100001
4.2509999 3.5510001 0.40099999
4.2509999 3.5510001 0.45100001
4.2509999 3.5510001 0.50099999
4.2509999 3.5510001 0.551
4.2509999 3.5510001 0.60100001
4.2509999 3.5510001 0.65100002
4.2509999 3.5510001 0.70099998
4.2509999 3.5510001 0.75099999
4.2509999 3.5510001 0.801
4.2509999 3.5510001 0.85100001
4.2509999 3.5510001 0.90100002
4.2509999 3.5510001 0.95099998
4.2509999 3.5510001 1.001
4.2509999 3.5510001 1.051
4.2509999 3.5510001 1.101
4.2509999 3.5510001 1.151
4.2509999 3.5510001 1.201
4.2509999 3.5510001 1.251
4.2509999 3.5510001 1.301
4.2509999 3.5510001 1.351
4.2509999 3.5510001 1.401
4.2509999 3.5510001 1.451
4.2509999 3.5510001 1.501
4.2509999 3.5510001 1.551
4.2509999 3.5510001 1.601
4.2509999 3.5510001 1.651
4.2509999 3.5510001 1.701
4.2509999 3.5510001 1.751
4.2509999 3.5510001 1.801
4.2509999 3.5510001 1.851
4.2509999 3.5510001 1.901
4.2509999 3.5510001 1.951
4.2509999 3.5510001 2.0009999
4.2509999 3.5510001 2.0510001
4.2509999 3.5510001 2.1010001
4.2509999 3.5510001 2.151
4.2509999 3.5510001 2.201
4.2509999 3.5510001 2.2509999
4.2509999 3.5510001 2.3010001
4.2509999 3.5510001 2.3510001
4.2509999 3.5510001 2.401
4.2509999 3.5510001 2.451
4.2509999 3.651 0.001
4.2509999 3.651 0.050999999
4.2509999 3.651 0.101
4.2509999 3.651 0.15099999
4.2509999 3.651 0.20100001
4.2509999 3.651 0.25099999
4.2509999 3.651 0.301
4.2509999 3.651 0.35100001
4.2509999 3.651 0.40099999
4.2509999 3.651 0.45100001
4.2509999 3.651 0.50099999
4.2509999 3.651 0.551
4.2509999 3.651 0.60100001
4.2509999 3.651 0.65100002
4.2509999 3.651 0.70099998
4.2509999 3.651 0.75099999
4.2509999 3.651 0.801
4.2509999 3.651 0.85100001
4.2509999 3.651 0.90100002
4.2509999 3.651 0.95099998
4.2509999 3.651 1.001
4.2509999 3.651 1.051
4.2509999 3.651 1.101
4.2509999 3.651 1.151
4.2509999 3.651 1.201
4.2509999 3.651 1.251
4.2509999 3.651 1.301
4.2509999 3.651 1.351
4.2509999 3.651 1.401
4.2509999 3.651 1.451
4.2509999 3.651 1.501
4.2509999 3.651 1.551
4.2509999 3.651 1.601
4.2509999 3.651 1.651
4.2509999 3.651 1.701
4.2509999 3.651 1.751
4.2509999 3.651 1.801
4.2509999 3.651 1.851
4.2509999 3.651 1.901
4.2509999 3.651 1.951
4.2509999 3.7509999 0.001
4.2509999 3.7509999 0.050999999
4.2509999 3.7509999 0.101
4.2509999 3.7509999 0.15099999
4.2509999 3.7509999 0.20100001
4.2509999 3.7509999 0.25099999
4.2509999 3.7509999 0.301
4.2509999 3.7509999 0.35100001
4.2509999 3.7509999 0.40099999
4.2509999 3.7509999 0.45100001
4.2509999 3.7509999 0.50099999
4.2509999 3.7509999 0.551
4.2509999 3.7509999 0.60100001
4.2509999 3.7509999 0.65100002
4.2509999 3.7509999 0.70099998
4.2509999 3.7509999 0.75099999
4.2509999 3.7509999 0.801
4.2509999 3.7509999 0.85100001
4.2509999 3.7509999 0.90100002
4.2509999 3.7509999 0.95099998
4.2509999 3.7509999 1.001
4.2509999 3.7509999 1.051
4.2509999 3.7509999 1.101
4.2509999 3.7509999 1.151
4.2509999 3.7509999 1.201
4.2509999 3.7509999 1.251
4.2509999 3.7509999 1.301
4.2509999 3.7509999 1.351
4.2509999 3.7509999 1.401
4.2509999 3.7509999 1.451
4.2509999 3.7509999 1.501
4.2509999 3.7509999 1.551
4.2509999 3.7509999 1.601
4.2509999 3.7509999 1.651
4.2509999 3.8510001 0.001
4.2509999 3.8510001 0.050999999
4.2509999 3.8510001 0.101
4.2509999 3.8510001 0.15099999
4.2509999 3.8510001 0.20100001
4.2509999 3.8510001 0.25099999
4.2509999 3.8510001 0.301
4.2509999 3.8510001 0.35100001
4.2509999 3.8510001 0.40099999
4.2509999 3.8510001 0.45100001
4.2509999 3.8510001 0.50099999
4.2509999 3.8510001 0.551
4.2509999 3.8510001 0.60100001
4.2509999 3.8510001 0.65100002
4.2509999 3.8510001 0.70099998
4.2509999 3.8510001 0.75099999
4.2509999 3.8510001 0.801
4.2509999 3.8510001 0.85100001
4.2509999 3.8510001 0.90100002
4.2509999 3.8510001 0.95099998
4.2509999 3.8510001 1.001
4.2509999 3.8510001 1.051
4.2509999 3.8510001 1.101
4.2509999 3.8510001 1.151
4.2509999 3.8510001 1.201
4.2509999 3.8510001 1.251
4.2509999 3.8510001 1.301
4.2509999 3.8510001 1.351
4.2509999 3.8510001 1.401
4.2509999 3.8510001 1.451
4.2509999 3.8510001 1.501
4.2509999 3.8510001 1.551
4.2509999 3.8510001 1.601
4.2509999 3.8510001 1.651
4.2509999 3.8510001 1.701
4.2509999 3.8510001 1.751
4.2509999 3.8510001 1.801
4.2509999 3.8510001 1.851
4.2509999 3.8510001 1.901
4.2509999 3.8510001 1.951
4.2509999 3.8510001 2.0009999
